18.934999 34.195000 25.617001
19.129999 33.921001 24.219000
19.961000 32.667999 24.100000
19.360001 31.583000 24.851999
20.172001 32.122002 22.694000
21.350000 31.325001 22.681000
18.948000 31.223000 22.646999
19.231001 30.482000 23.944000
18.070000 29.660999 24.379999
18.224001 28.454000 25.014999
19.360001 28.014000 25.214001
17.143000 27.761000 25.377001
15.917000 28.226000 25.120001
14.828000 27.476999 25.444000
15.719000 29.441999 24.471001
16.843000 30.171000 24.101000
22.409000 31.285999 21.483000
21.822001 31.459000 20.139000
23.535999 32.157001 21.851000
22.840000 29.750999 21.497999
23.542999 29.174999 22.594000
23.493999 27.709000 22.278999
22.193001 27.252001 22.674000
23.693001 27.325001 20.806999
24.723000 26.320000 20.653000
22.273001 26.885000 20.416000
21.721001 26.304001 21.716000
20.237000 26.469999 21.780001
19.525999 27.584000 21.429001
18.207001 27.455000 21.636000
18.083000 26.212000 22.142000
16.903999 25.525000 22.545000
15.739000 25.916000 22.518000
17.197001 24.278999 23.037001
18.434000 23.716999 23.155001
18.507999 22.455999 23.667999
19.537001 24.360001 22.770000
19.290001 25.594000 22.274000
25.063999 25.621000 19.252001
24.559000 26.412001 18.115000
26.506001 25.316000 19.219999
24.260000 24.246000 19.327000
24.584000 23.285000 20.334999
23.523001 22.233000 20.245001
22.256001 22.844000 20.452999
23.424000 21.556999 18.903000
24.121000 20.309000 18.927999
21.930000 21.406000 18.660999
21.278000 21.966000 19.909000
20.195999 22.889000 19.521000
18.909000 22.584000 19.816000
18.684999 21.511999 20.382000
17.934999 23.447001 19.502001
18.216999 24.603001 18.896999
17.221001 25.499001 18.629000
19.525999 24.945000 18.570999
20.537001 24.048000 18.899000
24.249001 19.412001 17.617001
24.208000 20.296000 16.440001
25.420000 18.535000 17.764999
22.931000 18.537001 17.670000
22.714001 17.625000 18.753000
21.393000 16.959999 18.504999
20.353001 17.952000 18.496000
21.264000 16.229000 17.176001
20.284000 15.214000 17.238001
20.792999 17.368000 16.288000
19.716000 17.900999 17.218000
19.305000 19.281000 16.868999
20.017000 20.263000 16.232000
19.313000 21.393999 16.077000
18.121000 21.100000 16.635000
16.952000 21.903999 16.749001
16.768999 23.056999 16.368000
15.933000 21.214001 17.351999
15.972000 19.930000 17.816000
14.831000 19.416000 18.353001
17.068001 19.179001 17.716999
18.084000 19.825001 17.121000
20.356001 13.969000 16.245001
20.837000 14.423000 14.910000
21.115999 12.891000 16.892000
18.809999 13.581000 16.160999
18.014999 13.569000 17.362000
16.672001 14.088000 16.957001
16.841999 15.447000 16.561001
16.018999 13.393000 15.764000
14.762000 12.796000 16.120001
15.952000 14.498000 14.696000
15.851000 15.732000 15.569000
16.391001 16.916000 14.867000
17.658001 17.103001 14.382000
17.863001 18.346001 13.913000
16.673000 18.952999 14.098000
16.230000 20.278999 13.819000
17.045000 21.222000 13.268000
14.966000 20.577999 14.118000
14.178000 19.652000 14.669000
14.463000 18.392000 14.984000
15.750000 18.110001 14.661000
13.866000 12.006000 15.063000
14.715000 11.499000 13.968000
13.028000 11.039000 15.800000
12.879000 13.111000 14.480000
11.802000 13.597000 15.290000
11.111000 14.603000 14.435000
12.152000 15.460000 13.962000
10.417000 14.070000 13.187000
9.007000 14.369000 13.181000
11.240000 14.692000 12.061000
11.699000 15.974000 12.719000
12.918000 16.525999 12.078000
14.115000 15.899000 11.868000
15.049000 16.714001 11.356000
14.416000 17.900999 11.246000
14.873000 19.187000 10.815000
16.160999 19.417999 10.427000
13.999000 20.191000 10.852000
12.753000 19.962000 11.272000
12.210000 18.823999 11.698000
13.116000 17.823000 11.657000
8.081000 14.050000 11.915000
8.600000 12.894000 11.137000
6.668000 13.960000 12.342000
8.239000 15.387000 11.076000
7.907000 16.635000 11.686000
8.162000 17.628000 10.598000
9.543000 17.580000 10.279000
7.461000 17.284000 9.296000
6.251000 18.034000 9.162000
8.532000 17.527000 8.223000
9.644000 18.209000 9.019000
11.021000 17.903000 8.565000
11.822000 18.923000 8.176000
11.383000 20.077000 8.143000
13.119000 18.641001 7.852000
13.633000 17.372000 7.882000
14.830000 17.222000 7.619000
12.781000 16.325001 8.235000
13.269000 14.902000 8.236000
11.465000 16.615999 8.594000
5.384000 17.990000 7.824000
5.458000 16.667999 7.160000
4.025000 18.444000 8.180000
6.086000 19.118000 6.927000
6.146000 20.478001 7.418000
6.995000 21.229000 6.438000
8.188000 20.458000 6.284000
6.418000 21.332001 5.029000
5.967000 22.667000 4.696000
7.513000 20.718000 4.139000
8.736000 20.855000 5.034000
9.823000 19.875999 4.759000
11.086000 20.316000 4.494000
11.324000 21.516001 4.389000
12.094000 19.403000 4.412000
11.876000 18.059999 4.551000
12.858000 17.316999 4.503000
10.569000 17.611000 4.765000
10.261000 16.139999 4.896000
9.545000 18.548000 4.904000
5.531000 23.070999 3.209000
5.010000 21.905001 2.470000
4.648000 24.243999 3.269000
6.926000 23.547001 2.611000
7.636000 24.627001 3.249000
8.897000 24.853001 2.457000
9.638000 23.627001 2.448000
8.717000 25.240000 0.998000
9.470000 26.414000 0.667000
9.126000 23.965000 0.253000
10.241000 23.483000 1.157000
10.524000 22.021999 1.015000
11.814000 21.603001 0.840000
12.691000 22.447001 0.670000
12.106000 20.297001 0.873000
11.141000 19.395000 1.046000
11.461000 18.075001 1.089000
9.803000 19.775000 1.177000
9.499000 21.132999 1.167000
9.055000 27.333000 -0.581000
7.632000 27.106001 -0.947000
9.496000 28.716999 -0.258000
9.954000 26.764999 -1.771000
11.382000 26.940001 -1.720000
11.972000 26.090000 -2.802000
11.802000 24.724001 -2.404000
11.327000 26.177999 -4.188000
12.311000 26.096001 -5.214000
10.414000 24.962000 -4.186000
11.429000 24.028000 -3.587000
10.890000 22.712999 -3.200000
9.616000 22.315001 -2.910000
9.541000 21.009001 -2.613000
10.818000 20.587999 -2.718000
11.376000 19.292000 -2.511000
10.813000 18.252001 -2.179000
12.729000 19.299000 -2.720000
13.498000 20.365000 -3.082000
14.834000 20.169001 -3.237000
12.982000 21.573000 -3.267000
11.656000 21.601000 -3.061000
12.763000 27.421000 -5.980000
11.886000 27.542000 -7.164000
12.796000 28.572001 -5.049000
14.272000 27.086000 -6.366000
15.275000 27.108000 -5.318000
16.222000 25.945999 -5.510000
15.443000 24.754000 -5.397000
16.941999 25.827000 -6.848000
18.340000 25.511000 -6.701000
16.118000 24.767000 -7.578000
15.856000 23.836000 -6.414000
14.672000 22.975000 -6.637000
14.802000 21.628000 -6.529000
15.924000 21.177999 -6.314000
13.723000 20.841999 -6.627000
12.515000 21.372999 -6.836000
11.410000 20.573999 -6.872000
12.348000 22.743999 -6.978000
13.470000 23.558001 -6.869000
19.330999 25.774000 -7.925000
18.763000 26.851000 -8.758000
20.704000 25.976000 -7.408000
19.302000 24.412001 -8.763000
20.108999 23.284000 -8.359000
19.747999 22.167000 -9.299000
18.350000 21.969000 -9.139000
19.921000 22.403999 -10.815000
20.985001 21.635000 -11.401000
18.535000 22.062000 -11.381000
17.965000 21.200001 -10.269000
16.493000 21.219999 -10.265000
15.663000 22.289000 -10.478000
14.368000 21.958000 -10.390000
14.388000 20.639999 -10.102000
13.301000 19.742001 -9.856000
12.091000 19.966999 -9.857000
13.750000 18.466000 -9.625000
15.042000 18.042999 -9.605000
15.259000 16.716999 -9.406000
16.061001 18.885000 -9.792000
15.660000 20.156000 -10.027000
7.458000 11.884000 -9.070000
8.252000 10.968000 -9.854000
9.714000 11.141000 -9.512000
10.144000 12.455000 -9.908000
10.103000 10.989000 -8.055000
11.293000 10.221000 -7.904000
10.254000 12.437000 -7.607000
10.896000 13.044000 -8.837000
10.575000 14.487000 -8.944000
11.559000 15.430000 -9.006000
12.725000 15.066000 -8.932000
11.246000 16.714001 -9.193000
9.980000 17.087999 -9.334000
9.698000 18.395000 -9.589000
8.939000 16.162001 -9.274000
9.265000 14.824000 -9.080000
11.602000 9.510000 -6.502000
10.644000 10.010000 -5.494000
11.666000 8.032000 -6.664000
13.051000 10.094000 -6.177000
14.100000 10.021000 -7.156000
15.113000 10.992000 -6.657000
14.556000 12.300000 -6.755000
15.445000 10.806000 -5.189000
16.836000 10.560000 -5.013000
14.937000 12.100000 -4.529000
15.058000 13.086000 -5.671000
14.036000 14.140000 -5.536000
12.710000 13.957000 -5.259000
12.016000 15.103000 -5.269000
12.937000 16.041000 -5.558000
12.761000 17.451000 -5.710000
11.723000 18.111000 -5.630000
13.952000 18.079000 -5.973000
15.171000 17.485001 -6.107000
16.243999 18.292000 -6.325000
15.329000 16.160999 -5.986000
14.179000 15.499000 -5.721000
17.478001 10.380000 -3.569000
16.427000 9.940000 -2.633000
18.665001 9.516000 -3.729000
17.957001 11.865000 -3.208000
18.962999 12.531000 -3.996000
18.936001 13.958000 -3.536000
17.591999 14.409000 -3.622000
19.253000 14.139000 -2.066000
20.659000 14.219000 -1.858000
18.520000 15.417000 -1.728000
17.545000 15.602000 -2.872000
16.145000 15.696000 -2.428000
15.507000 16.886000 -2.558000
16.162001 17.846001 -2.957000
14.209000 16.983000 -2.264000
13.536000 15.919000 -1.825000
12.205000 16.017000 -1.553000
14.164000 14.689000 -1.652000
15.509000 14.584000 -1.979000
21.304001 14.529000 -0.436000
20.488001 13.954000 0.650000
22.695999 14.087000 -0.524000
21.306000 16.117001 -0.363000
22.177000 16.875999 -1.212000
21.739000 18.292000 -1.021000
20.305000 18.225000 -1.048000
22.101000 18.959000 0.293000
22.591999 20.292999 0.097000
20.820000 18.829000 1.121000
19.764999 18.985001 0.046000
18.513000 18.299000 0.468000
18.363001 17.062000 1.039000
17.080000 16.743999 1.281000
16.400000 17.832001 0.868000
14.996000 18.090000 0.882000
14.082000 17.378000 1.280000
14.712000 19.349001 0.418000
15.606000 20.268000 -0.027000
15.134000 21.493000 -0.382000
16.912001 20.017000 -0.072000
17.236000 18.794001 0.384000
22.903999 21.238001 1.339000
23.104000 20.389999 2.538000
23.993999 22.183001 1.025000
21.577000 22.107000 1.390000
21.216000 22.833000 0.200000
20.101000 23.788000 0.484000
18.913000 23.054001 0.816000
20.347000 24.743000 1.633000
19.732000 26.010000 1.411000
19.752001 23.945000 2.791000
18.497000 23.393000 2.145000
18.079000 22.094999 2.758000
18.847000 21.020000 3.133000
18.114000 19.983999 3.584000
16.841999 20.424000 3.488000
15.577000 19.816999 3.786000
15.448000 18.537001 4.242000
14.482000 20.556999 3.593000
14.597000 21.801001 3.118000
15.700000 22.472000 2.783000
16.791000 21.705999 3.002000
19.802999 27.141001 2.526000
20.952999 26.858000 3.426000
19.796000 28.478001 1.888000
18.396000 26.938999 3.241000
17.202999 27.028000 2.452000
16.035000 26.958000 3.388000
15.856000 25.612000 3.850000
16.101000 27.861000 4.615000
14.890000 28.608000 4.757000
16.368000 26.844000 5.724000
15.561000 25.655001 5.243000
16.104000 24.372999 5.755000
17.410999 23.966999 5.830000
17.539000 22.705999 6.276000
16.266001 22.309000 6.480000
15.715000 21.073000 6.933000
16.483000 19.993999 7.243000
14.389000 20.993999 7.036000
13.636000 22.041000 6.708000
14.019000 23.233999 6.265000
15.367000 23.291000 6.174000
14.604000 29.545000 6.020000
15.852000 29.836000 6.749000
13.792000 30.695999 5.582000
13.633000 28.628000 6.885000
12.398000 28.171000 6.303000
11.809000 27.216999 7.302000
12.767000 26.184000 7.534000
11.515000 27.822001 8.669000
10.103000 27.952000 8.891000
12.267000 26.906000 9.630000
12.426000 25.645000 8.799000
13.609000 24.850000 9.205000
13.442000 23.575001 9.656000
12.311000 23.101000 9.802000
14.551000 22.825001 9.913000
15.815000 23.320999 9.777000
16.754999 22.570000 10.029000
15.972000 24.646999 9.362000
17.344999 25.239000 9.234000
14.844000 25.405001 9.048000
9.513000 28.533001 10.260000
10.455000 29.513000 10.841000
8.145000 29.007000 9.998000
9.395000 27.223000 11.153000
8.576000 26.148001 10.664000
8.655000 25.059999 11.678000
10.003000 24.615000 11.764000
8.272000 25.471001 13.087000
7.199000 24.657000 13.553000
9.586000 25.306999 13.860000
10.190000 24.148001 13.089000
11.660000 24.070000 13.205000
12.257000 22.879999 13.486000
11.583000 21.865999 13.691000
13.620000 22.829000 13.497000
14.402000 23.914000 13.225000
15.625000 23.764000 13.252000
13.774000 25.125999 12.933000
14.563000 26.358000 12.612000
12.385000 25.187000 12.926000
6.594000 24.823000 15.016000
6.870000 26.188999 15.511000
5.169000 24.424000 14.987000
7.409000 23.731001 15.839000
7.331000 22.351999 15.433000
8.100000 21.598000 16.461000
9.478000 21.902000 16.263000
7.766000 22.045000 17.879000
7.036000 21.041000 18.611000
9.123000 22.414000 18.469000
10.107000 21.743000 17.523001
11.328000 22.556000 17.330999
12.534000 21.938999 17.329000
12.560000 20.731001 17.579000
13.639000 22.639000 17.035000
13.560000 23.938000 16.739000
14.685000 24.628000 16.403999
12.338000 24.608999 16.736000
11.193000 23.878000 17.035000
6.509000 21.323999 20.099001
6.235000 22.774000 20.306000
5.387000 20.396999 20.396000
7.767000 20.924000 20.993000
8.216000 19.559000 21.073000
9.422000 19.556999 21.976999
10.493000 20.260000 21.319000
9.267000 20.267000 23.325001
10.088000 19.657000 24.292999
9.751000 21.670000 22.990000
10.988000 21.226000 22.256001
11.599000 22.357000 21.542999
11.037000 23.545000 21.159000
11.921000 24.362000 20.566000
13.072000 23.653000 20.580000
14.370000 24.003000 20.101999
14.747000 25.056999 19.584999
15.268000 22.983000 20.308001
15.023000 21.775999 20.891001
16.066000 20.914000 21.038000
13.815000 21.452000 21.350000
12.902000 22.429001 21.150999
9.477000 18.627001 25.340000
8.670000 19.409000 26.312000
8.767000 17.534000 24.627001
10.807000 18.066999 26.034000
11.688000 17.170000 25.309999
13.115000 17.573000 25.593000
13.284000 18.804001 24.893000
13.441000 17.879000 27.059000
14.341000 16.938000 27.677000
13.928000 19.322001 27.025000
14.312000 19.507999 25.568001
14.144000 20.931999 25.170000
15.199000 21.594999 24.629999
16.257000 20.983999 24.504000
15.067000 22.877001 24.257000
13.898000 23.510000 24.403999
13.771000 24.813000 24.018000
12.795000 22.865999 24.966999
12.935000 21.540001 25.358999
14.658000 17.063999 29.247000
13.633000 17.912001 29.920000
14.863000 15.717000 29.825001
16.033001 17.879999 29.284000
17.243000 17.320000 28.742001
18.208000 18.464001 28.757999
17.716000 19.427999 27.829000
18.230000 19.236000 30.058001
18.978001 18.583000 31.084000
18.885000 20.518999 29.577999
18.275999 20.693001 28.188000
17.164000 21.659000 28.139000
15.874000 21.535999 28.580000
15.129000 22.614000 28.308001
15.990000 23.436001 27.673000
15.765000 24.729000 27.117001
14.719000 25.372999 27.066999
16.926001 25.257000 26.604000
18.157000 24.666000 26.579000
19.208000 25.386000 26.096001
18.350000 23.438000 27.052999
17.231001 22.893000 27.570000
